5
868
0.57267 -0.00473 -1.00831 0.8427 143 79 100
0.57701 -0.00476 -1.00872 0.83586 140 77 102
0.581 -0.00479 -1.0085 0.83879 137 74 102
0.58525 -0.00482 -1.0087 0.83781 138 72 98
0.58976 -0.00486 -1.00932 0.83097 132 73 95
0.59413 -0.00489 -1.00965 0.82951 128 74 87
0.5983 -0.00492 -1.00963 0.84123 137 73 94
0.60258 -0.00495 -1.00976 0.83977 134 71 95
0.6066 -0.00498 -1.00945 0.83195 131 65 86
0.61095 -0.00502 -1.00963 0.83537 130 66 91
0.6155 -0.00505 -1.01014 0.84709 132 71 89
0.6197 -0.00508 -1.01004 0.85296 129 74 95
0.62411 -0.00512 -1.01025 0.85442 131 68 94
0.62801 -0.00514 -1.0096 0.85784 122 66 90
0.63164 -0.00517 -1.00852 0.85296 117 59 89
0.63367 -0.00518 -1.00488 0.78407 81 48 71
0.63413 -0.00518 -0.99879 0.76698 68 42 70
0.63455 -0.00519 -0.99271 0.77968 86 40 82
0.63446 -0.00518 -0.98588 0.78407 93 40 79
0.6345 -0.00518 -0.97931 0.78407 93 39 73
0.63444 -0.00518 -0.97266 0.78847 87 39 78
0.63375 -0.00517 -0.96511 0.79238 89 39 73
0.63418 -0.00517 -0.95932 0.78407 89 37 76
0.63363 -0.00516 -0.95212 0.78847 90 38 75
0.63405 -0.00516 -0.94643 0.84074 84 41 69
0.63181 -0.00514 -0.93685 0.76356 111 43 79
0.63188 -0.00514 -0.93077 0.76649 116 48 78
0.63248 -0.00514 -0.92552 0.77186 120 48 80
0.6326 -0.00514 -0.91962 0.76746 117 50 83
0.63314 -0.00514 -0.91438 0.77137 120 50 78
0.6328 -0.00513 -0.90792 0.7704 118 49 75
0.63312 -0.00513 -0.90245 0.76942 118 49 83
0.63226 -0.00512 -0.89536 0.77186 118 51 78
0.63251 -0.00512 -0.8899 0.76795 114 50 77
0.63193 -0.00511 -0.88332 0.77235 111 49 76
0.63213 -0.00511 -0.87788 0.77333 111 48 83
0.63265 -0.00511 -0.87294 0.76795 114 47 76
0.6322 -0.00511 -0.86671 0.77088 114 49 79
0.63197 -0.0051 -0.86082 0.77723 108 50 69
0.63259 -0.0051 -0.85614 0.77919 111 48 81
0.63223 -0.0051 -0.85018 0.77577 116 51 83
0.6325 -0.0051 -0.84511 0.77919 119 53 88
0.63257 -0.0051 -0.83981 0.78652 119 55 84
0.63291 -0.0051 -0.83491 0.78847 122 56 85
0.63293 -0.00509 -0.82962 0.78505 121 55 88
0.63297 -0.00509 -0.82442 0.78994 125 55 90
0.63294 -0.00509 -0.81915 0.79433 125 54 87
0.6325 -0.00508 -0.81341 0.78407 124 56 87
0.63303 -0.00508 -0.80894 0.78212 125 55 87
0.63353 -0.00508 -0.80448 0.79238 125 56 89
0.6332 -0.00508 -0.799 0.79238 127 56 90
0.6336 -0.00508 -0.79447 0.79091 126 55 88
0.63353 -0.00508 -0.7894 0.79531 127 55 88
0.63351 -0.00507 -0.78442 0.80362 128 53 86
0.63352 -0.00507 -0.77952 0.80606 129 55 85
0.633 -0.00506 -0.77401 0.81339 128 55 89
0.63296 -0.00506 -0.76913 0.82169 119 52 83
0.63417 -0.00507 -0.76579 0.83439 112 48 85
0.63376 -0.00506 -0.76054 0.81339 125 57 91
0.63327 -0.00506 -0.75521 0.80117 130 59 91
0.63352 -0.00506 -0.75082 0.80801 130 57 90
0.63428 -0.00506 -0.74704 0.80801 130 57 83
0.6339 -0.00505 -0.74197 0.80508 130 58 92
0.63364 -0.00505 -0.73706 0.81339 133 59 96
0.63426 -0.00505 -0.73322 0.81827 128 60 89
0.63441 -0.00505 -0.72886 0.81339 129 56 90
0.63434 -0.00505 -0.72427 0.81094 129 58 91
0.63465 -0.00505 -0.72014 0.81729 130 57 84
0.63454 -0.00504 -0.71557 0.81534 134 54 85
0.634 -0.00504 -0.71056 0.81192 132 54 89
0.63424 -0.00504 -0.70645 0.81632 130 55 91
0.63413 -0.00503 -0.70197 0.82071 130 59 85
0.63427 -0.00503 -0.6978 0.81729 129 59 92
0.63479 -0.00503 -0.69408 0.81729 132 55 92
0.63455 -0.00503 -0.68955 0.8212 132 56 91
0.63435 -0.00502 -0.6851 0.81974 127 55 93
0.63461 -0.00502 -0.68118 0.81778 128 57 92
0.63472 -0.00502 -0.67711 0.82022 127 59 88
0.6346 -0.00502 -0.67283 0.82511 128 56 92
0.63474 -0.00502 -0.66884 0.82462 129 56 91
0.63444 -0.00501 -0.66443 0.82364 124 61 93
0.63496 -0.00501 -0.66089 0.82902 128 62 93
0.63469 -0.00501 -0.65656 0.83 130 58 93
0.6351 -0.00501 -0.65296 0.82902 128 61 88
0.6348 -0.00501 -0.64865 0.82902 126 61 91
0.63531 -0.00501 -0.6452 0.83537 131 59 90
0.63483 -0.005 -0.64076 0.8339 129 60 89
0.63524 -0.005 -0.63725 0.83048 130 60 86
0.63457 -0.00499 -0.63268 0.83586 137 56 85
0.63467 -0.00499 -0.6289 0.83879 130 61 84
0.63482 -0.00499 -0.62519 0.83341 128 64 85
0.63388 -0.00498 -0.62044 0.83146 128 59 87
0.63449 -0.00498 -0.61723 0.83732 132 58 87
0.6343 -0.00498 -0.61327 0.83732 129 57 89
0.63474 -0.00498 -0.60993 0.8339 129 58 84
0.63473 -0.00498 -0.60618 0.8383 126 59 82
0.63506 -0.00498 -0.60278 0.84123 130 57 89
0.63473 -0.00497 -0.59877 0.83732 133 59 91
0.6346 -0.00497 -0.59497 0.83683 134 55 89
0.63474 -0.00497 -0.59145 0.84025 133 58 89
0.63494 -0.00497 -0.588 0.84074 130 57 89
0.63453 -0.00496 -0.58402 0.83928 129 58 87
0.63433 -0.00496 -0.58024 0.84416 129 59 87
0.63478 -0.00496 -0.57708 0.84709 129 60 85
0.63462 -0.00496 -0.57339 0.84367 131 63 85
0.63437 -0.00495 -0.56963 0.84123 133 64 85
0.63515 -0.00496 -0.56681 0.84954 130 64 84
0.63516 -0.00495 -0.56333 0.84954 128 63 87
0.63464 -0.00495 -0.55939 0.84758 131 60 84
0.63463 -0.00495 -0.55593 0.84856 132 62 89
0.63512 -0.00495 -0.55292 0.85247 129 59 89
0.63538 -0.00495 -0.54973 0.85149 132 59 88
0.63502 -0.00494 -0.54601 0.84709 130 61 87
0.63548 -0.00494 -0.54302 0.85149 130 61 88
0.63577 -0.00494 -0.5399 0.85491 131 59 85
0.63521 -0.00494 -0.53607 0.85002 134 58 89
0.63486 -0.00493 -0.53245 0.84954 133 60 88
0.63473 -0.00493 -0.52902 0.85198 136 61 88
0.6345 -0.00492 -0.52554 0.85149 130 59 81
0.63457 -0.00492 -0.52232 0.84954 130 59 92
0.63462 -0.00492 -0.5191 0.85589 131 59 92
0.63505 -0.00492 -0.5162 0.85638 131 60 93
0.63516 -0.00492 -0.51305 0.85247 129 61 85
0.63525 -0.00492 -0.50991 0.85247 135 58 89
0.63493 -0.00491 -0.50646 0.85638 131 59 87
0.63468 -0.00491 -0.50308 0.85442 134 59 86
0.63473 -0.00491 -0.49995 0.85491 133 57 87
0.63469 -0.00491 -0.49677 0.8554 137 58 87
0.63519 -0.00491 -0.49402 0.86028 133 58 83
0.63457 -0.0049 -0.49041 0.85686 129 59 93
0.63488 -0.0049 -0.48755 0.85491 129 62 90
0.63479 -0.0049 -0.48438 0.86224 132 60 90
0.63468 -0.00489 -0.48122 0.86126 132 63 86
0.63479 -0.00489 -0.47825 0.86224 128 58 85
0.63434 -0.00489 -0.47486 0.86175 133 56 90
0.63531 -0.00489 -0.47255 0.8637 130 58 98
0.63483 -0.00489 -0.46917 0.86077 132 59 93
0.63482 -0.00488 -0.46615 0.85833 131 58 87
0.63455 -0.00488 -0.46296 0.86566 129 60 90
0.63516 -0.00488 -0.46042 0.86761 134 61 89
0.63446 -0.00487 -0.45695 0.86175 131 58 79
0.63497 -0.00488 -0.45436 0.86321 130 60 83
0.63522 -0.00488 -0.45159 0.86761 128 62 80
0.63546 -0.00488 -0.44883 0.86468 131 58 80
0.63536 -0.00487 -0.44585 0.86273 132 55 90
0.63566 -0.00487 -0.44315 0.86663 132 58 87
0.63603 -0.00487 -0.44051 0.86957 133 56 85
0.63549 -0.00487 -0.43725 0.86663 135 56 85
0.63559 -0.00487 -0.43445 0.86566 133 56 83
0.63518 -0.00486 -0.43132 0.86957 128 59 80
0.63452 -0.00485 -0.42802 0.86859 125 61 81
0.6345 -0.00485 -0.42518 0.86273 129 61 82
0.63464 -0.00485 -0.42245 0.86908 128 60 84
0.63476 -0.00485 -0.41973 0.86908 127 60 82
0.63488 -0.00485 -0.41701 0.86468 129 59 85
0.6349 -0.00484 -0.41424 0.86761 130 60 86
0.63525 -0.00485 -0.41169 0.87103 131 63 83
0.63516 -0.00484 -0.40887 0.87054 132 62 82
0.63524 -0.00484 -0.40616 0.8681 131 60 83
0.63522 -0.00484 -0.4034 0.87103 131 60 83
0.6351 -0.00484 -0.4006 0.87494 127 64 86
0.63539 -0.00484 -0.39806 0.87347 128 61 86
0.63449 -0.00483 -0.39479 0.87005 127 63 85
0.63459 -0.00482 -0.39215 0.87738 124 63 83
0.6352 -0.00483 -0.38984 0.87689 125 62 89
0.63469 -0.00482 -0.38684 0.87298 128 63 87
0.6345 -0.00482 -0.38406 0.87592 128 60 86
0.63422 -0.00481 -0.38124 0.8808 130 63 92
0.63453 -0.00481 -0.37877 0.87982 127 61 90
0.63457 -0.00481 -0.37616 0.87738 126 62 91
0.6346 -0.00481 -0.37355 0.87689 132 61 89
0.63497 -0.00481 -0.37114 0.88178 129 64 90
0.63507 -0.00481 -0.36859 0.87543 128 67 88
0.6349 -0.00481 -0.36589 0.87494 127 67 87
0.63533 -0.00481 -0.36354 0.87982 125 66 84
0.63583 -0.00481 -0.36124 0.87689 129 66 91
0.63528 -0.0048 -0.35835 0.87592 134 64 95
0.63533 -0.0048 -0.35581 0.8764 134 64 89
0.63599 -0.0048 -0.35362 0.87836 131 67 88
0.63593 -0.0048 -0.35103 0.8764 129 68 87
0.63543 -0.00479 -0.34821 0.87543 130 70 94
0.63526 -0.00479 -0.34559 0.87836 128 67 94
0.63509 -0.00479 -0.34297 0.88227 129 65 91
0.63544 -0.00479 -0.34064 0.87592 131 66 87
0.63533 -0.00478 -0.33808 0.87885 130 67 92
0.63584 -0.00479 -0.33585 0.88178 130 67 96
0.63616 -0.00479 -0.33352 0.87787 134 65 100
0.63602 -0.00478 -0.33097 0.8764 134 66 95
0.63615 -0.00478 -0.32855 0.88031 135 66 96
0.63653 -0.00478 -0.32628 0.88227 133 69 94
0.63664 -0.00478 -0.32387 0.87689 135 67 91
0.63656 -0.00478 -0.32137 0.87738 131 70 92
0.63665 -0.00478 -0.31897 0.88178 132 68 92
0.63637 -0.00477 -0.31639 0.88129 135 68 96
0.63671 -0.00477 -0.31412 0.87934 136 70 101
0.63633 -0.00477 -0.3115 0.88324 134 70 92
0.6362 -0.00476 -0.30902 0.88422 137 67 94
0.63643 -0.00476 -0.30672 0.88129 136 69 91
0.63647 -0.00476 -0.30433 0.88129 138 67 95
0.63595 -0.00476 -0.30169 0.88324 140 66 90
0.63597 -0.00475 -0.29931 0.88617 139 69 97
0.63571 -0.00475 -0.29681 0.88227 139 70 98
0.63507 -0.00474 -0.29414 0.88569 139 70 97
0.6357 -0.00474 -0.29206 0.89057 137 70 96
0.63578 -0.00474 -0.28974 0.88471 138 72 98
0.63584 -0.00474 -0.28741 0.88471 138 69 100
0.63563 -0.00474 -0.28497 0.88715 139 70 98
0.63577 -0.00474 -0.28269 0.88666 138 72 99
0.63618 -0.00474 -0.28053 0.8852 141 67 101
0.63612 -0.00473 -0.27818 0.88813 139 68 94
0.63559 -0.00473 -0.27563 0.8935 137 73 98
0.63579 -0.00473 -0.2734 0.89253 137 75 97
0.63635 -0.00473 -0.27132 0.89155 137 71 99
0.63645 -0.00473 -0.26906 0.89643 138 69 102
0.63672 -0.00473 -0.26687 0.89692 140 71 97
0.63615 -0.00472 -0.26434 0.89155 140 70 96
0.63668 -0.00472 -0.26227 0.89301 138 71 97
0.63637 -0.00472 -0.25986 0.89839 139 69 100
0.63587 -0.00471 -0.25738 0.89595 135 71 94
0.63638 -0.00471 -0.25531 0.89204 139 72 93
0.63623 -0.00471 -0.25299 0.8979 139 73 93
0.63598 -0.00471 -0.25063 0.9023 140 74 92
0.63563 -0.0047 -0.24824 0.89692 138 73 100
0.63592 -0.0047 -0.24611 0.89741 141 68 94
0.63527 -0.00469 -0.24361 0.90132 144 68 93
0.63546 -0.00469 -0.24145 0.90083 142 72 95
0.63545 -0.00469 -0.23922 0.89839 137 71 99
0.63562 -0.00469 -0.23705 0.90376 134 71 102
0.63531 -0.00469 -0.23472 0.90767 138 72 98
0.63509 -0.00468 -0.23242 0.90523 136 74 96
0.6358 -0.00468 -0.23047 0.9023 139 72 100
0.63603 -0.00468 -0.22835 0.90767 136 68 100
0.63588 -0.00468 -0.22609 0.90962 141 71 100
0.63563 -0.00468 -0.22381 0.90523 140 74 95
0.63613 -0.00468 -0.22179 0.90718 146 72 97
0.63614 -0.00468 -0.21961 0.91304 143 73 97
0.63596 -0.00467 -0.21736 0.91011 143 72 102
0.63663 -0.00467 -0.21541 0.90914 144 73 106
0.63634 -0.00467 -0.21314 0.91255 145 75 106
0.63642 -0.00467 -0.21099 0.91549 144 71 106
0.63631 -0.00466 -0.20879 0.91158 146 73 99
0.6359 -0.00466 -0.20649 0.91207 150 72 101
0.63605 -0.00466 -0.20439 0.91695 145 74 103
0.6363 -0.00466 -0.20231 0.915 144 75 101
0.63577 -0.00465 -0.2 0.91109 142 73 103
0.636 -0.00465 -0.19792 0.91695 144 74 100
0.63584 -0.00465 -0.19574 0.9233 143 72 99
0.63615 -0.00465 -0.19369 0.91109 133 65 87
0.63665 -0.00465 -0.19171 0.91158 106 44 80
0.63713 -0.00465 -0.18973 0.92526 122 56 91
0.63704 -0.00465 -0.18757 0.92672 134 69 103
0.63848 -0.00466 -0.18587 0.91842 138 71 97
0.63722 -0.00464 -0.18338 0.92623 142 77 106
0.63788 -0.00465 -0.18145 0.9233 146 76 104
0.6366 -0.00463 -0.17898 0.92819 147 76 102
0.63542 -0.00462 -0.17654 0.92526 146 81 104
0.63566 -0.00462 -0.17451 0.92574 145 82 102
0.63572 -0.00462 -0.17243 0.92477 145 79 109
0.63595 -0.00462 -0.1704 0.91891 148 74 106
0.6358 -0.00462 -0.16826 0.92037 148 78 103
0.63573 -0.00461 -0.16616 0.9233 142 77 95
0.63624 -0.00461 -0.16421 0.92086 151 74 102
0.63586 -0.00461 -0.16203 0.91646 148 75 99
0.63646 -0.00461 -0.1601 0.92086 151 75 101
0.63588 -0.00461 -0.15788 0.92184 148 77 99
0.63646 -0.00461 -0.15595 0.91744 145 82 100
0.63625 -0.0046 -0.15383 0.91744 152 75 101
0.63604 -0.0046 -0.15172 0.92184 151 75 100
0.63641 -0.0046 -0.14974 0.92037 148 76 101
0.63647 -0.0046 -0.14769 0.91597 148 77 103
0.63673 -0.0046 -0.1457 0.91891 148 75 100
0.63639 -0.00459 -0.14356 0.92379 147 78 101
0.63663 -0.00459 -0.14157 0.91891 144 78 96
0.63599 -0.00458 -0.13938 0.91939 145 78 97
0.6369 -0.00459 -0.13753 0.9233 147 77 101
0.63674 -0.00458 -0.13545 0.9233 150 75 98
0.63627 -0.00458 -0.13331 0.92037 147 76 99
0.63658 -0.00458 -0.13133 0.92233 147 76 103
0.63659 -0.00458 -0.1293 0.92428 144 78 98
0.63708 -0.00458 -0.12736 0.92281 147 79 100
0.63717 -0.00458 -0.12535 0.92086 149 75 100
0.63647 -0.00457 -0.12318 0.92379 148 77 103
0.63636 -0.00456 -0.12113 0.92672 145 78 98
0.63663 -0.00456 -0.11916 0.92135 148 79 95
0.63679 -0.00456 -0.11717 0.92281 148 78 99
0.63705 -0.00456 -0.1152 0.92916 149 75 96
0.63711 -0.00456 -0.11319 0.92868 154 75 107
0.63706 -0.00456 -0.11116 0.92574 150 74 107
0.6369 -0.00455 -0.10912 0.92721 149 77 99
0.63694 -0.00455 -0.10712 0.93112 150 77 101
0.63657 -0.00455 -0.10505 0.92672 151 79 99
0.6367 -0.00454 -0.10306 0.92574 148 77 104
0.63711 -0.00454 -0.10112 0.93063 149 76 100
0.63702 -0.00454 -0.0991 0.93161 149 75 102
0.63623 -0.00453 -0.09698 0.92672 151 75 99
0.63643 -0.00453 -0.09501 0.92965 149 78 99
0.63672 -0.00453 -0.09306 0.93405 149 78 101
0.63641 -0.00453 -0.09102 0.93014 148 79 99
0.63668 -0.00453 -0.08907 0.92916 147 77 98
0.63606 -0.00452 -0.08699 0.93454 146 79 98
0.63692 -0.00452 -0.08512 0.93552 146 80 96
0.63609 -0.00451 -0.08302 0.93063 149 77 101
0.63614 -0.00451 -0.08104 0.9321 151 78 99
0.63619 -0.00451 -0.07906 0.93796 148 80 93
0.63673 -0.00451 -0.07715 0.93405 145 81 99
0.63627 -0.00451 -0.07511 0.93112 149 76 99
0.63669 -0.00451 -0.07318 0.93405 148 78 98
0.63672 -0.0045 -0.0712 0.93454 148 79 101
0.63633 -0.0045 -0.06918 0.93063 152 79 101
0.63605 -0.00449 -0.06718 0.93405 153 80 104
0.63615 -0.00449 -0.06521 0.93845 152 78 97
0.63605 -0.00449 -0.06323 0.93405 150 79 99
0.63624 -0.00449 -0.06128 0.92916 147 80 95
0.63682 -0.00449 -0.05936 0.93112 152 77 93
0.6367 -0.00448 -0.05738 0.93112 152 80 96
0.63658 -0.00448 -0.0554 0.92574 150 79 98
0.63655 -0.00448 -0.05343 0.92623 150 78 97
0.63681 -0.00448 -0.05148 0.93258 150 78 100
0.63636 -0.00447 -0.04948 0.93356 147 79 97
0.63661 -0.00447 -0.04753 0.92965 146 79 97
0.63606 -0.00446 -0.04553 0.93405 146 80 102
0.63669 -0.00447 -0.04361 0.93796 148 81 101
0.63652 -0.00446 -0.04164 0.93552 147 81 105
0.63685 -0.00446 -0.0397 0.93405 149 81 93
0.63627 -0.00445 -0.0377 0.93747 148 84 97
0.63608 -0.00445 -0.03573 0.93942 149 84 100
0.63599 -0.00445 -0.03377 0.93698 153 81 97
0.63579 -0.00444 -0.0318 0.93552 151 83 102
0.63658 -0.00445 -0.02988 0.93991 152 82 99
0.63657 -0.00444 -0.02792 0.93747 151 83 101
0.63626 -0.00444 -0.02595 0.93405 149 84 99
0.63673 -0.00444 -0.02401 0.936 149 87 100
0.6364 -0.00443 -0.02205 0.93942 147 89 103
0.63707 -0.00444 -0.02011 0.93698 152 85 106
0.63593 -0.00442 -0.01812 0.93405 152 84 105
0.63688 -0.00443 -0.01619 0.93894 151 87 106
0.63673 -0.00442 -0.01423 0.93894 152 89 105
0.63597 -0.00442 -0.01226 0.9321 149 88 106
0.6364 -0.00442 -0.01032 0.936 151 87 105
0.63593 -0.00441 -0.00836 0.93894 151 86 100
0.63615 -0.00441 -0.00641 0.93454 149 88 104
0.63677 -0.00441 -0.00446 0.93405 149 90 105
0.63608 -0.0044 -0.0025 0.93649 153 90 107
0.63608 -0.0044 -0.00055 0.936 153 89 107
0.63618 -0.0044 0.0014 0.92916 151 86 107
0.63658 -0.0044 0.00335 0.93112 150 89 108
0.63616 -0.00439 0.0053 0.93796 151 87 108
0.63624 -0.00439 0.00726 0.93649 152 85 105
0.63642 -0.00439 0.00921 0.9321 154 81 106
0.63669 -0.00439 0.01117 0.93307 156 86 107
0.63675 -0.00439 0.01313 0.92868 150 90 110
0.63721 -0.00439 0.01509 0.91988 156 89 110
0.63746 -0.00438 0.01706 0.91988 151 90 110
0.6372 -0.00438 0.01901 0.92379 156 90 111
0.63674 -0.00437 0.02095 0.92281 154 94 118
0.63677 -0.00437 0.02291 0.92135 156 91 114
0.6367 -0.00437 0.02486 0.92672 154 93 114
0.63652 -0.00436 0.02681 0.93063 156 93 113
0.63693 -0.00436 0.02879 0.92819 156 92 111
0.63684 -0.00436 0.03074 0.92721 156 92 112
0.63685 -0.00436 0.0327 0.93454 157 94 108
0.63694 -0.00435 0.03467 0.93063 158 92 120
0.63653 -0.00435 0.0366 0.92672 162 90 110
0.63662 -0.00435 0.03857 0.93112 155 96 109
0.63739 -0.00435 0.04058 0.93356 155 92 112
0.63727 -0.00434 0.04253 0.92916 157 92 110
0.63733 -0.00434 0.0445 0.92819 163 89 116
0.63709 -0.00434 0.04645 0.93307 157 94 114
0.63725 -0.00434 0.04843 0.9321 155 92 109
0.6368 -0.00433 0.05036 0.92868 156 95 108
0.63684 -0.00433 0.05233 0.93014 157 94 111
0.63648 -0.00432 0.05427 0.9321 153 95 111
0.6374 -0.00432 0.05632 0.9277 157 94 113
0.63743 -0.00432 0.05829 0.92477 155 95 118
0.63774 -0.00432 0.06029 0.93063 158 94 111
0.63696 -0.00431 0.06219 0.92965 157 95 112
0.63766 -0.00431 0.06424 0.92477 155 94 109
0.63746 -0.00431 0.06619 0.92672 160 96 113
0.63705 -0.0043 0.06813 0.93014 162 93 111
0.63724 -0.0043 0.07013 0.9277 160 96 114
0.63742 -0.0043 0.07213 0.92477 160 100 112
0.63759 -0.0043 0.07413 0.92868 160 97 116
0.63716 -0.00429 0.07606 0.92965 161 97 118
0.63683 -0.00429 0.078 0.92379 161 96 116
0.63797 -0.00429 0.08013 0.92428 165 97 118
0.63733 -0.00428 0.08204 0.92868 163 97 109
0.63737 -0.00428 0.08403 0.92526 161 95 114
0.6376 -0.00428 0.08605 0.92233 163 93 113
0.63773 -0.00428 0.08806 0.92379 164 98 119
0.63736 -0.00427 0.09001 0.92623 163 94 117
0.63768 -0.00427 0.09205 0.92379 163 99 113
0.63769 -0.00427 0.09405 0.92086 165 98 112
0.63759 -0.00426 0.09603 0.92574 165 99 113
0.63789 -0.00426 0.09808 0.92428 162 101 109
0.63759 -0.00425 0.10004 0.91939 164 101 109
0.63807 -0.00425 0.10212 0.9233 164 102 108
0.63805 -0.00425 0.10412 0.92574 164 98 112
0.63762 -0.00424 0.10607 0.92184 167 99 116
0.63789 -0.00424 0.10812 0.91891 166 101 117
0.63755 -0.00424 0.11008 0.92135 166 98 112
0.6378 -0.00424 0.11214 0.92184 168 98 117
0.63736 -0.00423 0.11408 0.91549 168 100 118
0.63809 -0.00423 0.11623 0.91597 164 101 114
0.63822 -0.00423 0.11828 0.91891 167 103 117
0.63805 -0.00422 0.12027 0.91695 165 101 121
0.63738 -0.00422 0.12217 0.91353 164 102 113
0.63789 -0.00422 0.1243 0.91793 166 102 116
0.6379 -0.00421 0.12633 0.91891 167 102 119
0.6377 -0.00421 0.12833 0.91451 166 101 120
0.6375 -0.0042 0.13032 0.91402 165 99 121
0.63769 -0.0042 0.1324 0.91842 170 102 117
0.63786 -0.0042 0.13448 0.91549 171 101 111
0.63794 -0.00419 0.13654 0.91207 171 102 120
0.63791 -0.00419 0.13858 0.91451 168 103 114
0.63787 -0.00419 0.14063 0.91646 169 102 117
0.63773 -0.00418 0.14265 0.91207 175 104 118
0.63787 -0.00418 0.14474 0.9106 171 102 116
0.6382 -0.00418 0.14687 0.91597 169 103 119
0.63775 -0.00417 0.14883 0.91304 172 103 121
0.63749 -0.00417 0.15083 0.90718 173 105 122
0.63809 -0.00417 0.15304 0.9106 173 101 122
0.63762 -0.00416 0.155 0.91402 173 104 119
0.63762 -0.00416 0.15707 0.91011 172 106 119
0.63753 -0.00415 0.15913 0.90669 173 103 124
0.63781 -0.00415 0.16128 0.9106 175 101 120
0.6378 -0.00415 0.16336 0.91109 171 104 124
0.63759 -0.00414 0.16539 0.90767 170 105 121
0.63766 -0.00414 0.1675 0.90669 171 105 114
0.63791 -0.00413 0.16966 0.91011 172 104 116
0.63768 -0.00413 0.17169 0.90718 172 107 118
0.63773 -0.00413 0.17381 0.90376 176 103 123
0.63787 -0.00412 0.17595 0.90865 176 103 112
0.6379 -0.00412 0.17806 0.90816 175 106 113
0.63793 -0.00412 0.18018 0.90132 173 107 125
0.63766 -0.00411 0.18222 0.90278 171 106 119
0.63825 -0.00411 0.18451 0.90718 171 108 117
0.63807 -0.0041 0.18658 0.90523 175 106 119
0.63797 -0.0041 0.18868 0.90083 172 107 115
0.63816 -0.0041 0.19086 0.90376 171 106 115
0.63805 -0.00409 0.19296 0.90474 172 109 114
0.63803 -0.00409 0.1951 0.89985 175 104 117
0.63848 -0.00409 0.19738 0.89936 173 106 117
0.63844 -0.00408 0.19951 0.90376 172 107 120
0.6383 -0.00408 0.20162 0.90132 178 107 112
0.63806 -0.00407 0.2037 0.8979 177 109 114
0.638 -0.00407 0.20584 0.90132 176 105 121
0.63813 -0.00406 0.20804 0.90425 174 103 120
0.63787 -0.00406 0.21013 0.90132 177 107 119
0.63808 -0.00406 0.21237 0.89985 177 108 119
0.63818 -0.00405 0.21458 0.90572 174 108 116
0.63752 -0.00404 0.21653 0.90572 173 106 117
0.63751 -0.00404 0.21872 0.89985 176 104 118
0.6375 -0.00404 0.2209 0.90034 175 102 118
0.63729 -0.00403 0.22302 0.90425 176 105 121
0.63745 -0.00403 0.22527 0.90034 175 105 117
0.63742 -0.00402 0.22746 0.89839 176 108 124
0.63766 -0.00402 0.22975 0.90327 174 107 119
0.63733 -0.00401 0.23185 0.90278 170 107 121
0.63755 -0.00401 0.23414 0.90132 176 106 117
0.63777 -0.00401 0.23645 0.89936 171 105 117
0.6377 -0.004 0.23865 0.90327 172 103 115
0.63762 -0.004 0.24085 0.90327 172 105 115
0.638 -0.00399 0.24323 0.89692 172 103 114
0.6379 -0.00399 0.24544 0.9023 173 104 113
0.63798 -0.00399 0.24772 0.90376 174 105 113
0.63852 -0.00398 0.25019 0.8979 172 106 116
0.63822 -0.00398 0.25233 0.89692 170 105 116
0.63828 -0.00397 0.25462 0.90181 175 103 118
0.63898 -0.00397 0.25717 0.89839 173 106 115
0.63874 -0.00397 0.25935 0.89741 172 106 117
0.63896 -0.00396 0.26173 0.8979 171 107 116
0.63834 -0.00396 0.26376 0.90278 171 107 117
0.63845 -0.00395 0.26611 0.89985 171 107 115
0.63846 -0.00395 0.26841 0.8979 176 106 114
0.63846 -0.00394 0.27072 0.90278 177 107 114
0.63855 -0.00394 0.27307 0.90278 176 106 118
0.63826 -0.00393 0.27526 0.89839 174 107 116
0.63879 -0.00393 0.27782 0.8979 176 107 122
0.63839 -0.00392 0.27998 0.9023 172 111 121
0.63817 -0.00392 0.28222 0.89985 178 109 120
0.63794 -0.00391 0.28446 0.89692 175 112 119
0.63844 -0.00391 0.28703 0.90376 175 109 118
0.63801 -0.0039 0.28919 0.90278 181 109 120
0.63875 -0.0039 0.2919 0.89741 179 109 121
0.63849 -0.0039 0.29415 0.89741 179 109 119
0.63886 -0.00389 0.29669 0.90181 181 114 117
0.63885 -0.00389 0.29907 0.90034 179 113 117
0.63874 -0.00388 0.30142 0.89692 183 113 121
0.63917 -0.00388 0.30402 0.90034 184 109 127
0.63923 -0.00387 0.30645 0.90327 183 111 123
0.63909 -0.00387 0.3088 0.8979 182 113 118
0.63922 -0.00386 0.31129 0.89741 186 113 125
0.63916 -0.00386 0.31369 0.90181 184 114 125
0.6391 -0.00385 0.31609 0.8979 185 114 118
0.63893 -0.00385 0.31845 0.89399 187 117 118
0.63911 -0.00384 0.32099 0.89692 185 113 132
0.63866 -0.00384 0.32322 0.90181 183 113 127
0.63847 -0.00383 0.32558 0.89643 188 117 128
0.63844 -0.00382 0.32804 0.89448 187 116 123
0.63814 -0.00382 0.33037 0.89692 188 115 127
0.63855 -0.00381 0.33306 0.89839 187 116 125
0.63832 -0.00381 0.33544 0.89448 190 119 125
0.63773 -0.0038 0.33763 0.89546 188 116 127
0.6381 -0.00379 0.34033 0.89595 190 118 128
0.63855 -0.00379 0.34309 0.89204 192 118 128
0.63838 -0.00379 0.34553 0.88959 193 118 133
0.63855 -0.00378 0.34815 0.89448 189 117 133
0.63844 -0.00377 0.35064 0.8935 187 117 137
0.63876 -0.00377 0.35337 0.89008 187 114 134
0.63837 -0.00376 0.35572 0.89057 189 117 133
0.63815 -0.00376 0.35816 0.89643 188 116 128
0.63844 -0.00375 0.3609 0.89643 185 119 128
0.63803 -0.00374 0.36326 0.89155 185 119 129
0.63787 -0.00374 0.36576 0.89741 192 116 132
0.63769 -0.00373 0.36826 0.90034 195 116 133
0.63751 -0.00372 0.37077 0.89301 192 117 129
0.63758 -0.00372 0.37343 0.89155 194 118 123
0.63824 -0.00372 0.37645 0.89839 191 116 133
0.63829 -0.00371 0.37912 0.89741 192 117 133
0.63875 -0.00371 0.38205 0.89301 194 115 135
0.63801 -0.0037 0.38427 0.89741 193 114 132
0.63828 -0.00369 0.3871 0.90132 192 114 135
0.63846 -0.00369 0.38989 0.89888 190 113 129
0.63871 -0.00368 0.39274 0.89546 191 114 130
0.63911 -0.00368 0.39569 0.89839 189 115 131
0.63875 -0.00367 0.39818 0.89985 192 115 129
0.63879 -0.00367 0.40093 0.89448 194 117 130
0.63866 -0.00366 0.40359 0.89497 195 116 130
0.63835 -0.00365 0.40613 0.89888 197 114 134
0.63853 -0.00365 0.409 0.8935 196 117 135
0.63837 -0.00364 0.41167 0.89301 196 118 133
0.63752 -0.00363 0.41389 0.89643 194 116 136
0.63826 -0.00363 0.41716 0.89399 197 115 137
0.63856 -0.00362 0.42016 0.89057 196 118 134
0.63869 -0.00361 0.42305 0.89106 197 117 136
0.63864 -0.00361 0.42584 0.89448 197 118 136
0.63882 -0.0036 0.4288 0.89546 198 118 140
0.63933 -0.0036 0.43199 0.89106 202 114 137
0.63924 -0.00359 0.43479 0.89448 198 117 133
0.63922 -0.00358 0.43765 0.89546 199 118 129
0.6392 -0.00358 0.44052 0.89399 196 118 141
0.63899 -0.00357 0.44327 0.89008 195 120 137
0.63911 -0.00356 0.44626 0.89692 197 116 137
0.63913 -0.00356 0.4492 0.89546 198 120 131
0.63889 -0.00355 0.45196 0.89106 196 123 133
0.6384 -0.00354 0.45456 0.89546 196 120 128
0.63879 -0.00353 0.45779 0.89936 194 117 130
0.63844 -0.00353 0.46051 0.89546 197 120 139
0.63856 -0.00352 0.46358 0.89301 194 117 135
0.63851 -0.00351 0.46654 0.89448 207 116 136
0.63901 -0.00351 0.46992 0.89692 203 120 134
0.63869 -0.0035 0.47271 0.89301 202 117 129
0.63868 -0.00349 0.47574 0.89692 200 118 137
0.63866 -0.00348 0.47877 0.90132 197 119 133
0.63847 -0.00347 0.48169 0.89595 199 119 131
0.63882 -0.00347 0.48504 0.89008 198 120 139
0.63876 -0.00346 0.48809 0.89595 200 117 139
0.63932 -0.00346 0.49163 0.89741 200 117 133
0.63892 -0.00345 0.49444 0.8935 198 123 132
0.63882 -0.00344 0.49751 0.8935 200 115 137
0.63949 -0.00344 0.50119 0.89936 199 114 140
0.63953 -0.00343 0.50439 0.89985 196 118 139
0.63931 -0.00342 0.5074 0.89888 192 114 134
0.63908 -0.00341 0.51042 0.8979 195 114 131
0.63899 -0.0034 0.51357 0.89692 194 111 130
0.6385 -0.00339 0.5164 0.89106 204 117 136
0.63816 -0.00338 0.51937 0.88666 202 117 136
0.63865 -0.00338 0.52303 0.89301 207 120 137
0.6382 -0.00337 0.52594 0.88959 204 120 136
0.63843 -0.00336 0.52943 0.88764 203 116 129
0.63942 -0.00336 0.53356 0.88764 205 124 128
0.63954 -0.00335 0.537 0.89057 205 121 131
0.63881 -0.00334 0.53973 0.88617 208 123 135
0.63936 -0.00333 0.54356 0.88471 206 124 136
0.63906 -0.00332 0.54669 0.88911 204 124 138
0.63905 -0.00331 0.55008 0.88862 209 123 137
0.63864 -0.0033 0.55315 0.88617 207 122 138
0.63928 -0.0033 0.55715 0.89008 206 122 138
0.63908 -0.00329 0.56042 0.89546 206 124 135
0.63945 -0.00328 0.56423 0.89204 206 124 138
0.63997 -0.00327 0.56818 0.89008 205 122 137
0.63964 -0.00326 0.5714 0.89399 204 121 134
0.63922 -0.00325 0.57457 0.89155 208 120 134
0.63939 -0.00325 0.57827 0.89106 207 123 133
0.63924 -0.00324 0.5817 0.88911 204 125 135
0.63915 -0.00323 0.58521 0.89253 205 125 137
0.63919 -0.00322 0.58886 0.89057 206 122 136
0.63951 -0.00321 0.59279 0.88764 206 122 139
0.63922 -0.0032 0.59618 0.88959 207 124 138
0.63922 -0.00319 0.59985 0.89399 207 121 139
0.6389 -0.00318 0.60325 0.88813 207 123 135
0.63886 -0.00317 0.60693 0.88569 209 121 139
0.63888 -0.00316 0.61068 0.89057 211 120 138
0.63881 -0.00315 0.61437 0.88911 207 121 140
0.63915 -0.00314 0.61848 0.88422 207 122 138
0.63947 -0.00314 0.6226 0.88813 209 125 131
0.63984 -0.00313 0.62679 0.88862 207 121 133
0.63963 -0.00312 0.63043 0.88422 207 121 138
0.63982 -0.00311 0.6345 0.88666 207 119 143
0.63958 -0.0031 0.63816 0.88764 211 120 136
0.63959 -0.00309 0.6421 0.88813 208 122 132
0.6398 -0.00308 0.64626 0.88666 209 118 137
0.63929 -0.00307 0.64971 0.88715 204 121 131
0.63974 -0.00306 0.65417 0.88813 205 123 135
0.63948 -0.00305 0.65792 0.88569 210 124 125
0.63961 -0.00304 0.66211 0.88227 207 121 131
0.63966 -0.00303 0.66623 0.8852 206 124 134
0.63941 -0.00301 0.67007 0.88422 206 123 137
0.63969 -0.003 0.67449 0.88276 205 122 135
0.63961 -0.00299 0.67856 0.88617 205 124 130
0.63978 -0.00298 0.68293 0.89057 205 122 130
0.6398 -0.00297 0.68715 0.88764 205 121 132
0.63966 -0.00296 0.69124 0.88276 204 123 131
0.63964 -0.00295 0.69548 0.88666 206 124 129
0.63919 -0.00294 0.69928 0.8852 209 123 134
0.63906 -0.00293 0.70346 0.88276 210 125 131
0.63972 -0.00292 0.70853 0.87982 211 123 133
0.63995 -0.00291 0.71317 0.88324 210 125 136
0.64002 -0.0029 0.71766 0.88276 209 125 139
0.63974 -0.00288 0.72179 0.87836 212 125 139
0.63938 -0.00287 0.72585 0.88178 213 126 135
0.63959 -0.00286 0.73059 0.88276 211 126 132
0.63977 -0.00285 0.73534 0.87738 209 127 139
0.63981 -0.00284 0.73994 0.87689 209 125 143
0.64001 -0.00282 0.74478 0.87836 210 125 140
0.63941 -0.00281 0.74872 0.87836 207 125 137
0.6399 -0.0028 0.75395 0.87689 212 126 136
0.63952 -0.00279 0.7582 0.87543 211 126 136
0.63944 -0.00277 0.76284 0.87689 210 126 143
0.6396 -0.00276 0.76779 0.87689 211 125 135
0.63947 -0.00275 0.77245 0.8725 213 127 133
0.63914 -0.00273 0.77687 0.8764 214 125 135
0.63909 -0.00272 0.78169 0.87689 211 127 137
0.63928 -0.00271 0.78683 0.86957 212 130 137
0.6395 -0.0027 0.79206 0.87152 214 130 137
0.6397 -0.00268 0.79729 0.87836 210 126 138
0.63962 -0.00267 0.80222 0.8725 213 126 137
0.63921 -0.00266 0.80676 0.86615 213 128 134
0.63927 -0.00264 0.81193 0.86957 213 127 137
0.63943 -0.00263 0.81728 0.86761 215 132 143
0.63975 -0.00262 0.82286 0.8637 215 131 143
0.63942 -0.0026 0.82767 0.86468 214 128 145
0.63908 -0.00259 0.83248 0.87054 211 131 138
0.63962 -0.00257 0.83849 0.86712 211 130 137
0.63928 -0.00256 0.8434 0.8637 213 129 140
0.63928 -0.00254 0.84879 0.86663 217 130 141
0.63919 -0.00253 0.8541 0.86663 214 129 139
0.63914 -0.00251 0.85951 0.85882 219 133 142
0.63864 -0.0025 0.86436 0.85979 218 133 145
0.639 -0.00248 0.87042 0.86028 216 133 142
0.63899 -0.00247 0.87601 0.86077 218 133 146
0.63859 -0.00245 0.88112 0.85442 217 130 148
0.63875 -0.00244 0.88705 0.85686 216 135 148
0.63894 -0.00242 0.89307 0.86028 219 135 142
0.63927 -0.00241 0.89935 0.85833 224 136 144
0.63928 -0.00239 0.90522 0.85247 221 138 144
0.6396 -0.00238 0.9116 0.86077 218 136 146
0.63943 -0.00236 0.91733 0.86077 223 137 146
0.63913 -0.00234 0.9229 0.85247 220 142 145
0.63907 -0.00232 0.92889 0.8554 220 141 151
0.63933 -0.00231 0.93539 0.85882 223 139 155
0.63887 -0.00229 0.9409 0.85198 223 138 153
0.63906 -0.00227 0.94741 0.84709 222 139 155
0.63927 -0.00226 0.95402 0.84758 220 138 149
0.63884 -0.00224 0.95972 0.85051 220 137 148
0.63921 -0.00222 0.96668 0.84563 226 137 149
0.63981 -0.00221 0.97406 0.84319 223 143 147
0.63983 -0.00219 0.98062 0.84563 220 138 149
0.63954 -0.00217 0.98678 0.84367 221 138 147
0.63927 -0.00215 0.99302 0.8427 216 137 145
0.63795 -0.00213 0.99767 0.9062 166 110 118
0.6351 -0.0021 0.99996 0.91939 209 169 174
0.63454 -0.00208 1.00587 0.8852 224 194 191
0.6347 -0.00206 1.01298 0.88276 227 195 191
0.63624 -0.00205 1.02239 0.85638 215 177 183
0.63621 -0.00203 1.02936 0.88911 200 173 173
0.63619 -0.00201 1.03642 0.87982 201 170 171
0.63676 -0.00199 1.04451 0.87738 212 181 189
0.63739 -0.00197 1.05279 0.88959 206 184 176
0.63715 -0.00195 1.0597 0.87982 210 181 179
0.63749 -0.00193 1.06766 0.88373 209 187 184
0.63758 -0.00191 1.07529 0.88373 205 180 181
0.63758 -0.00189 1.08284 0.88227 216 191 187
0.63744 -0.00187 1.09022 0.87738 212 186 185
0.63801 -0.00185 1.09892 0.87396 216 192 187
0.63843 -0.00183 1.10745 0.8808 215 195 193
0.63857 -0.0018 1.11556 0.87689 211 193 191
0.6387 -0.00178 1.12378 0.86761 213 196 192
0.63874 -0.00176 1.13191 0.87347 218 198 201
0.63928 -0.00174 1.14102 0.88031 212 192 194
0.63914 -0.00171 1.149 0.86663 218 198 193
0.63914 -0.00169 1.15734 0.87005 222 201 197
0.63997 -0.00167 1.16728 0.87836 215 199 197
0.63873 -0.00164 1.17353 0.915 222 212 206
0.63547 -0.00161 1.1761 0.8979 245 235 231
0.63517 -0.00158 1.18421 0.85051 237 219 218
0.63572 -0.00156 1.19401 0.84807 240 215 213
0.63944 -0.00154 1.20992 0.78701 222 162 165
0.63977 -0.00152 1.21958 0.78994 233 160 162
0.63977 -0.00149 1.22872 0.78994 233 159 160
0.63986 -0.00147 1.23813 0.78798 237 157 163
0.6404 -0.00144 1.24854 0.78505 237 160 164
0.64002 -0.00141 1.25727 0.78065 236 159 163
0.63995 -0.00139 1.26672 0.78407 237 162 162
0.64024 -0.00136 1.27699 0.77919 238 161 167
0.6402 -0.00133 1.28674 0.77479 239 163 168
0.63993 -0.0013 1.29613 0.77333 241 161 164
0.64004 -0.00127 1.30644 0.77577 240 166 164
0.64019 -0.00125 1.31694 0.77088 240 161 165
0.64032 -0.00122 1.32754 0.77333 243 165 169
0.6404 -0.00119 1.33816 0.77528 244 164 170
0.64058 -0.00116 1.34915 0.76795 240 164 169
0.64045 -0.00113 1.35961 0.76893 237 164 168
0.64069 -0.00109 1.37098 0.76698 239 167 168
0.64073 -0.00106 1.3821 0.76209 241 169 170
0.6408 -0.00103 1.39342 0.75623 240 169 165
0.64043 -0.001 1.40393 0.75965 240 167 168
0.64119 -0.00097 1.41709 0.75818 241 168 174
0.64115 -0.00093 1.42863 0.75965 240 169 172
0.64091 -0.0009 1.4399 0.75427 237 172 177
0.64098 -0.00086 1.45201 0.7533 237 173 171
0.64138 -0.00083 1.46505 0.77968 232 155 157
0.64095 -0.00079 1.47637 0.7533 240 167 169
0.64117 -0.00076 1.48935 0.75574 237 169 168
0.64155 -0.00072 1.50289 0.75525 238 168 168
0.64159 -0.00068 1.51581 0.74792 239 167 172
0.6415 -0.00065 1.52865 0.7489 238 164 169
0.64185 -0.00061 1.5427 0.75672 234 162 165
0.64177 -0.00057 1.55594 0.7533 228 150 158
0.6412 -0.00053 1.56817 0.73766 241 167 172
0.64147 -0.00049 1.58264 0.76551 239 176 178
0.6406 -0.00045 1.59453 0.75134 240 181 179
0.64104 -0.00041 1.60986 0.73718 240 174 172
0.64114 -0.00036 1.62456 0.72741 239 173 172
0.64122 -0.00032 1.63946 0.72936 240 171 173
0.6414 -0.00028 1.65485 0.73034 242 168 176
0.6412 -0.00023 1.6695 0.72692 243 167 176
0.64138 -0.00019 1.68538 0.72154 238 167 168
0.64151 -0.00014 1.70138 0.72545 239 166 167
0.64189 -0.0001 1.71832 0.72496 239 166 169
0.64215 -5e-05 1.73519 0.72106 238 165 162
0.64202 0 1.75133 0.71959 234 165 159
0.64369 5e-05 1.77265 0.73522 234 157 162
0.64384 0.0001 1.79014 0.77235 236 156 160
0.64077 0.00015 1.79889 0.88227 233 181 178
0.63529 0.0002 1.80093 0.90669 238 205 199
0.62996 0.00025 1.80344 0.90327 241 205 199
0.62444 0.0003 1.80536 0.89595 240 209 198
0.61916 0.00035 1.80802 0.89106 242 210 198
0.61368 0.0004 1.8101 0.89253 242 209 200
0.60833 0.00045 1.81254 0.89399 243 208 201
0.60299 0.0005 1.81506 0.88862 242 208 203
0.59755 0.00055 1.81728 0.89155 241 210 202
0.59208 0.0006 1.81939 0.8935 243 212 203
0.58674 0.00065 1.82195 0.89106 244 212 200
0.58125 0.0007 1.82403 0.89008 242 213 201
0.57575 0.00075 1.82608 0.89253 244 211 204
0.5706 0.00081 1.82927 0.89204 242 211 202
0.56491 0.00086 1.83072 0.88813 242 210 202
0.55956 0.00091 1.83331 0.88764 242 207 197
0.55414 0.00096 1.83568 0.89155 240 209 200
0.54872 0.00101 1.83804 0.88911 241 207 199
0.54339 0.00106 1.84077 0.88715 242 209 201
0.53784 0.00111 1.84271 0.89057 240 207 198
0.53247 0.00116 1.84531 0.89155 240 209 196
0.52708 0.00121 1.8479 0.88862 238 209 197
0.52145 0.00126 1.8496 0.8852 240 207 200
0.51618 0.00132 1.85263 0.88959 238 205 198
0.51053 0.00137 1.8543 0.88764 238 203 195
0.50524 0.00142 1.85731 0.88471 239 206 195
0.49976 0.00147 1.85962 0.88764 240 205 193
0.49442 0.00152 1.86249 0.88813 240 205 193
0.48869 0.00157 1.8639 0.88324 239 205 198
0.48337 0.00163 1.86694 0.88276 237 204 195
0.47795 0.00168 1.86957 0.88569 239 203 196
0.47247 0.00173 1.872 0.88715 241 204 195
0.46683 0.00178 1.87382 0.88276 238 205 195
0.4613 0.00183 1.87612 0.88276 238 205 194
0.45583 0.00189 1.87869 0.88324 241 205 194
0.45024 0.00194 1.88076 0.88471 239 204 192
0.44487 0.00199 1.88378 0.87982 237 205 193
0.43923 0.00204 1.88572 0.88471 237 202 192
0.4337 0.0021 1.88813 0.88422 239 203 196
0.42813 0.00215 1.89042 0.88178 239 202 193
0.42247 0.0022 1.89231 0.88324 237 201 189
0.41699 0.00225 1.89506 0.88862 238 200 189
0.41138 0.00231 1.89721 0.8852 235 195 185
0.4059 0.00236 1.90003 0.88031 235 191 183
0.40071 0.00241 1.90429 0.87982 230 187 180
0.39498 0.00247 1.906 0.88129 237 193 187
0.38942 0.00252 1.90858 0.86615 236 196 186
0.38398 0.00257 1.91182 0.86663 237 191 189
0.37842 0.00263 1.91446 0.87152 234 195 184
0.37282 0.00268 1.91698 0.87103 239 200 185
0.36708 0.00274 1.9188 0.86859 241 197 196
0.36136 0.00279 1.9208 0.87445 241 199 194
0.35566 0.00284 1.92288 0.8808 243 202 195
0.35007 0.0029 1.92564 0.87494 241 205 198
0.34436 0.00295 1.92778 0.87396 243 206 194
0.33877 0.003 1.9306 0.87885 243 204 193
0.33314 0.00306 1.9333 0.87787 246 205 200
0.3274 0.00311 1.9354 0.87298 244 207 200
0.32182 0.00317 1.93847 0.87347 242 208 197
0.31607 0.00322 1.94063 0.87445 245 210 203
0.31046 0.00328 1.94366 0.87054 246 208 204
0.30476 0.00333 1.94628 0.86761 244 207 199
0.29903 0.00339 1.94869 0.87152 244 207 198
0.29327 0.00344 1.95098 0.87396 244 210 201
0.28761 0.0035 1.95404 0.8681 243 206 198
0.28176 0.00355 1.95591 0.86859 245 208 202
0.27599 0.00361 1.95834 0.87347 245 204 202
0.27019 0.00367 1.96057 0.86859 246 210 198
0.26446 0.00372 1.96347 0.86468 246 208 199
0.25861 0.00378 1.96556 0.86859 244 206 195
0.25281 0.00383 1.96803 0.86957 246 206 196
0.247 0.00389 1.97058 0.86566 247 207 199
0.24127 0.00395 1.9738 0.86566 245 204 200
0.23545 0.004 1.97642 0.86957 243 205 196
0.2296 0.00406 1.97892 0.86663 244 204 196
0.2237 0.00412 1.98111 0.86321 245 207 196
0.21785 0.00417 1.98377 0.86468 246 206 196
0.21196 0.00423 1.98612 0.86957 246 206 198
0.20604 0.00429 1.98835 0.86517 244 204 202
0.20018 0.00435 1.99126 0.86077 244 203 197
0.19427 0.0044 1.99385 0.86517 244 206 197
0.18844 0.00446 1.99743 0.86566 243 203 191
0.18246 0.00452 1.99949 0.85882 244 204 194
0.17653 0.00458 2.00223 0.85931 245 204 198
0.17064 0.00464 2.00565 0.8637 245 204 198
0.16466 0.0047 2.00816 0.85931 247 204 197
0.15864 0.00475 2.01034 0.85735 246 203 194
0.1526 0.00481 2.01232 0.86077 247 204 198
0.14663 0.00487 2.01547 0.85882 246 203 197
0.14066 0.00493 2.0188 0.85638 246 198 196
0.13462 0.00499 2.02152 0.85931 237 186 185
0.12868 0.00505 2.02581 0.86419 240 181 187
0.12248 0.00511 2.0264 0.86224 240 190 191
0.1164 0.00517 2.02896 0.8725 243 201 189
0.11037 0.00523 2.0327 0.87298 245 195 188
0.10417 0.00528 2.03343 0.87445 244 200 189
0.09808 0.00535 2.03663 0.87201 243 205 204
0.09192 0.00541 2.03872 0.87152 246 207 208
0.08577 0.00547 2.04129 0.87347 246 207 200
0.07961 0.00553 2.04394 0.87005 247 203 200
0.07344 0.00559 2.04658 0.86615 250 206 197
0.06724 0.00565 2.04909 0.86468 249 204 199
0.06108 0.00571 2.05308 0.8681 248 203 197
0.05484 0.00577 2.05516 0.86321 248 203 197
0.04861 0.00583 2.05802 0.86028 247 204 197
0.04236 0.00589 2.06066 0.86517 247 202 196
0.0361 0.00596 2.06388 0.86321 250 202 200
0.02981 0.00602 2.06638 0.8554 250 203 197
0.02351 0.00608 2.06906 0.85833 247 203 194
0.0172 0.00615 2.07222 0.85931 248 205 198
0.01087 0.00621 2.07496 0.85686 247 203 194
0.00452 0.00627 2.07719 0.851 249 204 198
0.52499 -0.00597 -1.00931 0.84025 139 73 97
0.52888 -0.00601 -1.0092 0.84465 140 74 99
0.53249 -0.00605 -1.00854 0.8427 142 77 101
0.5362 -0.00609 -1.00805 0.8427 149 77 101
0.54047 -0.00614 -1.0086 0.84514 144 79 99
0.54428 -0.00618 -1.00825 0.84709 144 78 102
0.54828 -0.00622 -1.00825 0.83439 136 71 100
0.55258 -0.00626 -1.00875 0.8427 139 76 98
0.55631 -0.0063 -1.00818 0.84758 140 80 101
0.56023 -0.00634 -1.00796 0.84221 141 75 97
0.564 -0.00638 -1.00745 0.83488 137 76 96
0.56823 -0.00643 -1.00772 0.83781 141 78 96
0.57295 -0.00648 -1.00884 0.84416 143 75 101
0.57664 -0.00652 -1.00811 0.83781 139 76 103
0.58149 -0.00657 -1.00937 0.8383 137 76 97
0.58569 -0.00661 -1.00948 0.83439 136 71 97
0.58954 -0.00665 -1.00897 0.8339 134 73 89
0.59396 -0.0067 -1.00939 0.83146 132 71 85
0.59843 -0.00675 -1.00989 0.83586 133 74 90
0.60251 -0.00679 -1.00968 0.83879 132 73 94
0.60669 -0.00684 -1.00962 0.83537 128 67 84
0.61124 -0.00688 -1.01015 0.83195 131 66 94
0.61533 -0.00693 -1.00988 0.84758 131 70 95
0.61937 -0.00697 -1.00952 0.85442 127 73 100
0.62362 -0.00701 -1.00949 0.85393 130 71 98
0.62783 -0.00706 -1.00935 0.85638 125 65 93
0.63173 -0.0071 -1.00869 0.85589 117 59 91
0.63423 -0.00712 -1.00581 0.78896 84 47 73
0.63421 -0.00712 -0.99896 0.76502 72 41 68
0.63421 -0.00712 -0.9922 0.7831 83 40 83
0.63477 -0.00712 -0.98638 0.78749 91 40 76
0.63464 -0.00712 -0.97956 0.78505 91 38 78
0.6347 -0.00711 -0.97308 0.78456 88 41 76
0.63423 -0.00711 -0.96586 0.79091 88 39 75
0.63388 -0.0071 -0.9589 0.78603 88 37 74
0.63372 -0.00709 -0.95229 0.78749 87 41 75
0.63397 -0.00709 -0.94635 0.83781 85 41 73
0.63196 -0.00707 -0.9371 0.76014 104 43 82
0.63203 -0.00707 -0.93102 0.75965 121 49 80
0.63263 -0.00707 -0.92577 0.76258 124 47 82
0.63269 -0.00707 -0.91978 0.76502 122 49 80
0.63261 -0.00706 -0.91364 0.76209 122 50 82
0.63238 -0.00706 -0.90735 0.76356 118 50 76
0.63287 -0.00706 -0.90212 0.76844 120 48 83
0.63258 -0.00706 -0.89585 0.77186 117 51 85
0.63226 -0.00705 -0.88958 0.76551 118 51 77
0.6322 -0.00705 -0.88373 0.76649 111 53 73
0.63228 -0.00704 -0.87813 0.77088 114 48 82
0.63257 -0.00704 -0.87286 0.77088 117 47 76
0.63242 -0.00704 -0.86704 0.7704 120 46 75
0.63224 -0.00704 -0.86122 0.77723 115 49 78
0.63227 -0.00703 -0.85573 0.78456 115 46 89
0.63275 -0.00704 -0.8509 0.7831 121 52 85
0.63284 -0.00703 -0.84559 0.78163 122 54 90
0.63273 -0.00703 -0.84004 0.78798 123 54 84
0.63319 -0.00703 -0.83531 0.79238 121 56 85
0.63315 -0.00703 -0.82994 0.79043 122 56 89
0.63296 -0.00703 -0.82442 0.79287 126 57 90
0.63335 -0.00703 -0.8197 0.79873 125 58 86
0.63298 -0.00702 -0.81404 0.79287 125 57 87
0.63264 -0.00701 -0.80847 0.7914 127 56 90
0.63339 -0.00702 -0.80432 0.79971 128 56 92
0.63368 -0.00702 -0.79963 0.8002 129 57 93
0.63327 -0.00701 -0.79408 0.79482 129 56 88
0.63308 -0.00701 -0.78886 0.79189 125 57 88
0.6333 -0.00701 -0.78419 0.79384 127 56 89
0.6335 -0.00701 -0.77952 0.79287 129 54 88
0.63367 -0.00701 -0.77486 0.80459 126 55 89
0.63376 -0.00701 -0.77013 0.82462 111 53 82
0.63453 -0.00701 -0.76625 0.84221 107 49 80
0.63458 -0.00701 -0.76154 0.83146 120 59 87
0.63383 -0.007 -0.7559 0.80899 131 59 93
0.63364 -0.00699 -0.75097 0.80801 128 55 94
0.63452 -0.007 -0.74735 0.81241 128 54 88
0.63382 -0.00699 -0.74189 0.80606 128 55 89
0.63375 -0.00699 -0.73721 0.81045 130 55 92
0.63385 -0.00699 -0.73277 0.81681 128 55 85
0.63413 -0.00699 -0.72855 0.81339 130 55 87
0.63373 -0.00698 -0.72359 0.80703 129 56 86
0.63463 -0.00699 -0.72014 0.81681 127 55 88
0.63491 -0.00699 -0.71602 0.82071 131 54 89
0.63425 -0.00698 -0.71086 0.81827 133 55 93
0.63362 -0.00697 -0.70578 0.81485 126 55 89
0.63405 -0.00697 -0.7019 0.82022 127 58 83
0.63405 -0.00697 -0.69758 0.82511 126 60 89
0.63389 -0.00697 -0.69312 0.81974 127 59 86
0.63446 -0.00697 -0.68948 0.81876 129 58 88
0.63454 -0.00697 -0.68532 0.82462 128 54 86
0.63419 -0.00696 -0.68074 0.81876 128 56 81
0.63443 -0.00696 -0.67681 0.82071 122 61 82
0.63438 -0.00696 -0.67261 0.82511 123 62 85
0.63486 -0.00696 -0.66899 0.82902 127 58 90
0.63456 -0.00696 -0.66457 0.82462 131 57 90
0.6348 -0.00696 -0.66075 0.82853 129 61 90
0.63502 -0.00696 -0.65692 0.83244 128 55 91
0.6348 -0.00695 -0.65268 0.83244 131 56 90
0.63485 -0.00695 -0.64872 0.83244 128 61 87
0.63487 -0.00695 -0.64477 0.83195 131 60 90
0.63502 -0.00695 -0.64097 0.83732 133 58 92
0.63543 -0.00695 -0.63746 0.83341 132 58 89
0.63548 -0.00695 -0.6336 0.83488 135 56 89
0.63522 -0.00694 -0.62946 0.83586 129 60 86
0.63544 -0.00694 -0.62582 0.83439 126 65 89
0.63543 -0.00694 -0.62198 0.83 127 59 88
0.63476 -0.00693 -0.61751 0.83635 134 57 88
0.63464 -0.00693 -0.61361 0.8427 132 57 93
0.63457 -0.00693 -0.60979 0.83683 127 59 89
0.63485 -0.00693 -0.60632 0.83635 131 57 91
0.63483 -0.00692 -0.60258 0.84319 137 56 95
0.63515 -0.00693 -0.59918 0.84172 133 60 94
0.63501 -0.00692 -0.59538 0.83732 137 58 93
0.6353 -0.00692 -0.592 0.84123 133 60 86
0.6347 -0.00691 -0.5878 0.84563 129 58 93
0.63503 -0.00692 -0.58449 0.84025 133 60 97
0.6349 -0.00691 -0.58078 0.83977 132 61 88
0.63484 -0.00691 -0.57715 0.84465 131 60 92
0.63534 -0.00691 -0.57406 0.84416 134 60 93
0.63532 -0.00691 -0.5705 0.8383 133 62 85
0.63483 -0.0069 -0.56655 0.8427 132 63 87
0.635 -0.0069 -0.5632 0.84758 125 64 89
0.63477 -0.0069 -0.55953 0.84416 134 61 85
0.63521 -0.0069 -0.55645 0.84221 131 62 87
0.63511 -0.0069 -0.55292 0.84709 130 61 88
0.63536 -0.0069 -0.54973 0.84954 129 61 86
0.63523 -0.00689 -0.54621 0.84416 131 62 90
0.63554 -0.0069 -0.54308 0.84563 130 61 91
0.63507 -0.00689 -0.53932 0.85149 128 60 86
0.63558 -0.00689 -0.5364 0.84954 133 58 90
0.63508 -0.00688 -0.53264 0.84758 136 58 88
0.63494 -0.00688 -0.52922 0.84954 136 59 87
0.63487 -0.00688 -0.52586 0.8554 129 63 91
0.63494 -0.00688 -0.52264 0.85198 131 60 93
0.63492 -0.00687 -0.51935 0.85051 133 61 92
0.63503 -0.00687 -0.5162 0.85589 133 60 92
0.63529 -0.00687 -0.51318 0.85638 132 59 89
0.63515 -0.00687 -0.50985 0.85296 135 59 94
0.63546 -0.00687 -0.5069 0.85979 129 61 95
0.63529 -0.00687 -0.50358 0.85979 135 61 86
0.63503 -0.00686 -0.5002 0.8554 137 61 85
0.63444 -0.00685 -0.49658 0.85784 136 58 90
0.63493 -0.00686 -0.49383 0.8637 131 57 85
0.63471 -0.00685 -0.49054 0.86126 130 61 82
0.63431 -0.00685 -0.48712 0.8554 129 64 84
0.63469 -0.00685 -0.48432 0.86321 130 60 90
0.63442 -0.00684 -0.48104 0.86468 131 63 88
0.63462 -0.00684 -0.47813 0.86126 134 62 86
0.63504 -0.00685 -0.4754 0.85979 132 58 83
0.63441 -0.00684 -0.47189 0.86321 131 56 89
0.63497 -0.00684 -0.46929 0.86517 130 60 87
0.63472 -0.00684 -0.46609 0.86224 127 62 90
0.63478 -0.00683 -0.46314 0.8637 130 60 84
0.63458 -0.00683 -0.46001 0.86957 132 60 90
0.63477 -0.00683 -0.45718 0.86419 127 59 85
0.63462 -0.00683 -0.45412 0.86028 129 58 83
0.63512 -0.00683 -0.45154 0.86321 129 59 84
0.63528 -0.00683 -0.44872 0.86615 130 59 84
0.63518 -0.00683 -0.44573 0.85882 131 58 86
0.63548 -0.00683 -0.44303 0.85979 131 56 84
0.6356 -0.00683 -0.44023 0.86615 132 58 83
0.6358 -0.00683 -0.43748 0.8637 133 58 84
0.63582 -0.00682 -0.43462 0.86224 132 55 83
0.63558 -0.00682 -0.4316 0.86517 131 56 92
0.63525 -0.00681 -0.42852 0.86908 127 57 85
0.63465 -0.00681 -0.42529 0.86566 128 61 83
0.6347 -0.0068 -0.42251 0.86663 126 60 80
0.63475 -0.0068 -0.41973 0.87103 130 59 82
0.63478 -0.0068 -0.41695 0.8681 127 60 85
0.63505 -0.0068 -0.41435 0.86468 129 61 84
0.63506 -0.0068 -0.41158 0.87054 133 60 85
0.6354 -0.0068 -0.40903 0.87201 132 63 82
0.63564 -0.0068 -0.40643 0.87005 132 60 83
0.6352 -0.00679 -0.4034 0.87054 131 61 82
0.63533 -0.00679 -0.40076 0.87445 130 61 88
0.63538 -0.00679 -0.39806 0.8764 127 60 86
0.63507 -0.00679 -0.39516 0.87396 125 63 84
0.63509 -0.00679 -0.39247 0.87445 128 64 81
0.63527 -0.00679 -0.38989 0.8808 127 60 84
0.63467 -0.00678 -0.38684 0.87494 126 61 91
0.63483 -0.00678 -0.38427 0.87689 126 62 88
0.63497 -0.00678 -0.3817 0.88031 131 61 96
0.63486 -0.00677 -0.37898 0.88227 129 61 95
0.63447 -0.00677 -0.37611 0.87885 129 60 94
0.63502 -0.00677 -0.3738 0.8764 133 62 89
0.63504 -0.00677 -0.37119 0.88031 132 62 89
0.6354 -0.00677 -0.36879 0.87738 128 67 88
0.63566 -0.00677 -0.36634 0.8725 128 67 84
0.6354 -0.00677 -0.36359 0.8764 129 67 87
0.63573 -0.00677 -0.36119 0.87982 128 68 91
0.63579 -0.00677 -0.35865 0.87298 128 66 89
0.63575 -0.00676 -0.35606 0.87396 131 67 91
0.63562 -0.00676 -0.35342 0.87885 133 66 91
0.636 -0.00676 -0.35108 0.87787 128 68 91
0.63602 -0.00676 -0.34855 0.87347 128 71 92
0.63586 -0.00676 -0.34593 0.8764 131 68 95
0.63613 -0.00676 -0.34354 0.8808 133 69 93
0.63568 -0.00675 -0.34079 0.87787 134 67 87
0.63558 -0.00675 -0.33822 0.87445 135 65 94
0.63582 -0.00675 -0.33585 0.88031 132 70 99
0.6357 -0.00674 -0.33329 0.88031 131 68 93
0.63618 -0.00675 -0.33106 0.87543 133 67 92
0.63578 -0.00674 -0.32837 0.87689 134 68 101
0.63687 -0.00675 -0.32646 0.88129 134 68 94
0.63636 -0.00674 -0.32373 0.8764 134 68 91
0.63645 -0.00674 -0.32133 0.87543 133 69 98
0.63672 -0.00674 -0.31901 0.87836 131 68 95
0.63627 -0.00674 -0.31634 0.87885 132 67 97
0.63706 -0.00674 -0.3143 0.87934 136 66 91
0.63721 -0.00674 -0.31194 0.87787 137 66 93
0.63664 -0.00673 -0.30924 0.88471 137 67 103
0.63605 -0.00673 -0.30655 0.8852 135 66 102
0.63636 -0.00673 -0.30429 0.88031 138 70 98
0.63639 -0.00672 -0.30191 0.88569 142 67 93
0.63613 -0.00672 -0.2994 0.88764 140 70 94
0.63596 -0.00672 -0.29693 0.8852 137 69 96
0.63587 -0.00671 -0.29452 0.88471 141 67 99
0.63596 -0.00671 -0.29219 0.88959 138 70 98
0.6354 -0.0067 -0.28957 0.89106 142 71 91
0.63555 -0.0067 -0.28729 0.88471 137 72 93
0.63643 -0.00671 -0.28534 0.88862 140 68 102
0.63584 -0.0067 -0.28273 0.89155 141 70 105
0.63643 -0.00671 -0.28065 0.89155 138 70 102
0.63619 -0.0067 -0.27822 0.88862 136 67 99
0.63659 -0.0067 -0.27606 0.89546 138 71 101
0.63633 -0.0067 -0.27363 0.89643 137 74 96
0.63643 -0.0067 -0.27136 0.89301 137 73 96
0.63634 -0.00669 -0.26902 0.89643 137 73 98
0.63642 -0.00669 -0.26675 0.90132 144 70 102
0.63632 -0.00669 -0.26441 0.89936 143 73 95
0.63629 -0.00669 -0.26212 0.89595 139 74 94
0.63691 -0.00669 -0.26009 0.9023 141 69 103
0.6365 -0.00669 -0.25764 0.90425 141 71 99
0.63636 -0.00668 -0.25531 0.90034 138 76 98
0.63621 -0.00668 -0.25299 0.90132 141 75 95
0.63643 -0.00668 -0.25081 0.90523 143 73 95
0.63636 -0.00668 -0.24853 0.90425 140 69 93
0.63516 -0.00666 -0.24582 0.90034 142 73 99
